# .PCD v0.7 - Point Cloud Data file format
VERSION 0.7
FIELDS x y z rgb
SIZE 4 4 4 4
TYPE F F F F
COUNT 1 1 1 1
WIDTH 1091
HEIGHT 1
VIEWPOINT 0 0 0 1 0 0 0
POINTS 1091
DATA ascii
0.4209524095 0.1180952415 -1.531428576 1.843912597e-40
0.4190476239 0.1180952415 -1.531428576 0
0.417142868 0.1180952415 -1.531428576 0
-inf -inf inf 0
45.44000244 13.2266674 -171.5200043 0
45.22666931 13.2266674 -171.5200043 0
45.01333618 13.2266674 -171.5200043 0
-inf -inf inf 0
-inf -inf inf 0
0.553792119 0.1742898971 -2.260146618 0
0.5485714674 0.1735277027 -2.250262499 0
0.5489736199 0.1745454669 -2.263460398 0
0.5477647185 0.1750588268 -2.27011776 0
0.5441409945 0.1748017669 -2.266784191 0
0.5421176553 0.1750588268 -2.27011776 0
0.5400884151 0.1753166467 -2.273461103 9.219562986e-41
0.5372607112 0.1753166467 -2.273461103 3.687825195e-40
0.5344330072 0.1753166467 -2.273461103 6.45369409e-40
0.5316053033 0.1753166467 -2.273461103 6.45369409e-40
0.5287776589 0.1753166467 -2.273461103 4.609781493e-40
0.525949955 0.1753166467 -2.273461103 1.843912597e-40
0.523122251 0.1753166467 -2.273461103 0
0.5210619569 0.1755752265 -2.276814222 0
0.5174669027 0.1753166467 -2.273461103 0
0.5161595345 0.1758345664 -2.280177355 0
0.5148444772 0.1763555557 -2.286933422 0
0.5120000243 0.1763555557 -2.286933422 0
0.5076514482 0.1758345664 -2.280177355 0
0.5116167665 0.1782035977 -2.310898304 0
0.3868304789 0.1462407857 -1.896412849 0
0.3854187429 0.1466009915 -1.901083827 0
0.6336476803 0.2953846157 -3.830471516 0
0.4189091027 0.2164363712 -2.806690931 0
0.2948031723 0.1562204808 -2.025826931 0
0.2900000215 0.1550000012 -2.00999999 0
0.2856403589 0.1539974213 -1.996998787 0
0.283156544 0.1539974213 -1.996998787 0
0.2803100944 0.153798461 -1.99441874 0
0.2774709761 0.1536000073 -1.99184525 0
0.2746391892 0.1534020603 -1.989278436 0
0.2721649706 0.1534020603 -1.989278436 0
0.2947605848 0.1676619798 -2.174197197 0
0.2932956219 0.1683734208 -2.183423042 0
0.2914042771 0.1688510776 -2.189617157 0
0.2917510867 0.1722720712 -2.23397994 0
0.2438854426 0.1482440829 -1.922391057 0
0.1970934272 0.1373010427 -1.780484438 8.297606688e-40
0.1928868443 0.137459591 -1.782540441 7.375650389e-40
0.1886705309 0.137618497 -1.784601212 2.765868896e-40
0.1875348836 0.1384186149 -1.79497683 2.765868896e-40
0.185302332 0.1384186149 -1.79497683 2.765868896e-40
0.2555395663 0.2141007334 -2.77640295 2.765868896e-40
0.2520863414 0.2141007334 -2.77640295 2.765868896e-40
0.2486331016 0.2141007334 -2.77640295 9.219562986e-41
0.2451798618 0.2141007334 -2.77640295 0
0.242162168 0.2144864947 -2.781405449 0
0.2387027144 0.2144864947 -2.781405449 0
0.2348201573 0.2141007334 -2.77640295 0
0.2313669175 0.2141007334 -2.77640295 0
0.2283243388 0.2144864947 -2.781405449 0
0.225270763 0.2148736566 -2.786426067 0
0.2210071981 0.2141007334 -2.77640295 0
0.2167741954 0.2133333385 -2.766451836 0
0.2125714421 0.2125714421 -2.756571531 0
0.2106474936 0.2141007334 -2.77640295 0
2.800000191 4.960000038 -64.31999969 0
3.108571529 5.668571472 -73.50857544 0
4.873846531 9.156923294 -118.7446213 0
3.840000153 7.440000057 -96.48000336 0
2.705454588 5.410909176 -70.16727448 0
2.618181944 5.410909176 -70.16727448 0
2.784000158 5.952000141 -77.18400574 0
2.269090891 5.410909176 -70.16727448 9.219562986e-41
2.285714388 5.668571472 -73.50857544 2.765868896e-40
2.102857113 5.668571472 -73.50857544 5.531737792e-40
2.011428595 5.668571472 -73.50857544 4.609781493e-40
0.04843243584 0.2144864947 -2.781405449 0
0.04457142949 0.2125714421 -2.756571531 0
0.04143885151 0.2141007334 -2.77640295 0
-0.03644128144 0.1412099749 -1.831174493 0
-0.03817544132 0.1392280757 -1.805473804 0
-0.04571428895 0.1180952415 -1.531428576 0
-0.04761904851 0.1180952415 -1.531428576 0
-0.04952381179 0.1180952415 -1.531428576 0
-0.05142857507 0.1180952415 -1.531428576 0
-0.05333333462 0.1180952415 -1.531428576 0
-0.1076635569 0.2225046754 -2.885383368 0
-0.1082181856 0.2164363712 -2.806690931 0
-0.09000000358 0.1430769265 -1.855384707 0
-0.09131985903 0.1415457875 -1.835529208 0
-0.09261176735 0.1400470585 -1.81609416 0
-0.1128182858 0.1295320988 -1.679738879 0
-0.1135483906 0.1280000061 -1.659870982 0
-0.1141401306 0.1263694316 -1.638726234 0
-0.1136448607 0.1236137152 -1.602990746 0
-0.1135168225 0.1213455722 -1.573578 0
-0.1133933961 0.119159162 -1.545225263 0
-0.1142857149 0.1180952415 -1.531428576 0
-0.1161904782 0.1180952415 -1.531428576 0
-0.1180952415 0.1180952415 -1.531428576 0
-0.1238095313 0.1180952415 -1.531428576 0
-0.1641635746 0.1475093067 -1.912862539 0
-0.1643031836 0.145525679 -1.88713944 0
-0.1646376848 0.1437681168 -1.864347935 0
inf -inf inf 0
inf -inf inf 0
inf -inf inf 0
inf -inf inf 0
inf -inf inf 0
-0.2075675726 0.1532046348 -1.986718178 0
-0.2097686529 0.1530077159 -1.984164596 0
-0.2116923183 0.1526153833 -1.979076982 0
-0.214153856 0.1526153833 -1.979076982 9.219562986e-41
-0.2166153938 0.1526153833 -1.979076982 2.765868896e-40
-0.2190769315 0.1526153833 -1.979076982 4.609781493e-40
-0.2215384692 0.1526153833 -1.979076982 5.531737792e-40
-0.2240000069 0.1526153833 -1.979076982 4.609781493e-40
-0.2264615446 0.1526153833 -1.979076982 2.765868896e-40
-0.2292169482 0.1528113037 -1.98161757 9.219562986e-41
-0.2319794446 0.1530077159 -1.984164596 0
-0.2338461578 0.1526153833 -1.979076982 0
-0.2360051274 0.1524199843 -1.97654295 0
-0.6867153645 0.4344525635 -5.633868694 0
-0.6862094402 0.4297473133 -5.572852135 0
-0.6906474829 0.4282014668 -5.552805901 0
-0.6819310784 0.4104827642 -5.323034763 0
-0.6483117342 0.3864935338 -5.011948109 0
-0.6203077435 0.3662769496 -4.749784946 0
-0.6021301746 0.352189362 -4.567101002 0
-0.5869714618 0.3401142955 -4.410514355 0
-0.5665574074 0.3252459168 -4.21770525 0
-0.543584466 0.3091948032 -4.009558678 0
-0.5253731608 0.2961194217 -3.840000153 0
-0.5123077035 0.2861538529 -3.710769415 0
-0.7901805639 0.4297473133 -5.572852135 0
-0.7971119285 0.4297473133 -5.572852135 0
-0.8179061413 0.4297473133 -5.572852135 0
-0.8248375654 0.4297473133 -5.572852135 0
-0.8287770152 0.4282014668 -5.552805901 1.843912597e-40
-0.8387004137 0.4297473133 -5.572852135 3.687825195e-40
-0.8456317782 0.4297473133 -5.572852135 5.531737792e-40
-0.8494964242 0.4282014668 -5.552805901 5.531737792e-40
-0.8564029336 0.4282014668 -5.552805901 4.609781493e-40
-0.8633093834 0.4282014668 -5.552805901 2.765868896e-40
-0.8702158332 0.4282014668 -5.552805901 9.219562986e-41
-0.8771223426 0.4282014668 -5.552805901 0
-2.009302378 0.9227907062 -11.96651173 0
-1.963308334 0.8950376511 -11.60661697 0
-0.5738345981 0.2237594128 -2.901654243 2.765868896e-40
-0.5699443817 0.2208534479 -2.863970518 2.765868896e-40
-0.5640876293 0.2172262818 -2.816934347 2.765868896e-40
-0.40893507 0.1545974016 -2.004779339 2.765868896e-40
-0.4077220261 0.1532046348 -1.986718178 2.765868896e-40
-0.4107216597 0.1534020603 -1.989278436 2.765868896e-40
-0.4280254841 0.1516433209 -1.966471434 0
-1.266383052 0.4221276641 -5.474042892 1.843912597e-40
-1.277722478 0.4236299098 -5.493523121 2.765868896e-40
-1.280000091 0.4221276641 -5.474042892 2.765868896e-40
-1.28680861 0.4221276641 -5.474042892 2.765868896e-40
-1.28904593 0.4206360579 -5.454699993 1.843912597e-40
-1.295830488 0.4206360579 -5.454699993 9.219562986e-41
-1.307234049 0.4221276641 -5.474042892 0
-1.309399366 0.4206360579 -5.454699993 0
3.076923132 0.7507692575 -9.895384789 0
0.6220080853 0.1567871571 -2.066506147 1.843912597e-40
0.4380952418 0.1161904782 -1.531428576 9.219562986e-41
0.436190486 0.1161904782 -1.531428576 9.219562986e-41
0.4342857301 0.1161904782 -1.531428576 9.219562986e-41
0.4323809743 0.1161904782 -1.531428576 9.219562986e-41
0.4304762185 0.1161904782 -1.531428576 9.219562986e-41
0.4285714328 0.1161904782 -1.531428576 1.843912597e-40
0.426666677 0.1161904782 -1.531428576 2.765868896e-40
0.4247619212 0.1161904782 -1.531428576 2.765868896e-40
0.4228571653 0.1161904782 -1.531428576 1.843912597e-40
0.4209524095 0.1161904782 -1.531428576 9.219562986e-41
0.4190476239 0.1161904782 -1.531428576 0
40.89599991 11.71200085 -154.3680115 0
40.70400238 11.71200085 -154.3680115 0
36.82909393 10.64727306 -140.334549 0
-inf -inf inf 0
0.5529824495 0.171228081 -2.256842136 0
0.547772944 0.1704803556 -2.246987104 0
0.5481698513 0.1714787781 -2.260146618 0
0.5477647185 0.1722352952 -2.27011776 0
0.5441409945 0.1719823927 -2.266784191 0
0.5421176553 0.1722352952 -2.27011776 0
0.5400884151 0.1724889576 -2.273461103 9.219562986e-41
0.536470592 0.1722352952 -2.27011776 4.609781493e-40
0.5344330072 0.1724889576 -2.273461103 6.45369409e-40
0.5316053033 0.1724889576 -2.273461103 6.45369409e-40
0.5279999971 0.1722352952 -2.27011776 4.609781493e-40
0.525949955 0.1724889576 -2.273461103 1.843912597e-40
0.523122251 0.1724889576 -2.273461103 0
0.5210619569 0.1727433652 -2.276814222 0
0.5174669027 0.1724889576 -2.273461103 0
0.5161595345 0.1729985327 -2.280177355 0
0.5156083107 0.1737685502 -2.290326595 0
0.5120000243 0.1735111177 -2.286933422 0
0.5076514482 0.1729985327 -2.280177355 0
0.5116167665 0.1753293425 -2.310898304 0
1.007452488 0.445323199 -5.869505882 0
0.946187079 0.4212949872 -5.552805901 0
0.5316923261 0.2574065924 -3.392703533 0
0.4342429936 0.2189158946 -2.885383368 0
0.4189091027 0.2129454613 -2.806690931 0
0.4029629827 0.2065608501 -2.722539902 0
0.3899483681 0.2015834898 -2.656936407 0
0.2903780937 0.1526988298 -2.012620687 0
0.2947605848 0.1649577469 -2.174197197 0
0.2928813696 0.165423736 -2.180339098 0
0.290579915 0.165657714 -2.183423042 0
0.2913295031 0.169248566 -2.230751514 0
0.2435820997 0.1456716508 -1.920000076 0
0.1875348836 0.1361860484 -1.79497683 2.765868896e-40
0.185302332 0.1361860484 -1.79497683 2.765868896e-40
0.2550807893 0.2102693021 -2.771418333 2.765868896e-40
0.2511827946 0.2098924816 -2.766451836 2.765868896e-40
0.2477419376 0.2098924816 -2.766451836 1.843912597e-40
0.2443010807 0.2098924816 -2.766451836 9.219562986e-41
0.2412926555 0.2102693021 -2.771418333 0
0.2378456146 0.2102693021 -2.771418333 0
0.2335599363 0.2095170021 -2.761502743 0
0.2297142893 0.2091428638 -2.756571531 0
0.2275044918 0.2102693021 -2.771418333 0
0.225270763 0.2114079446 -2.786426067 0
0.2210071981 0.2106474936 -2.77640295 0
0.2167741954 0.2098924816 -2.766451836 0
0.2129517049 0.2095170021 -2.761502743 0
2.688000202 4.684800148 -61.74720383 0
3.108571529 5.577143192 -73.50857544 0
4.873846531 9.009231567 -118.7446213 0
4.096000195 7.808000088 -102.9120026 0
2.834285736 5.577143192 -73.50857544 0
2.742857218 5.577143192 -73.50857544 0
2.930526495 6.164210796 -81.24632263 0
0.05913043767 0.2121739239 -2.796521902 0
0.05585454777 0.2129454613 -2.806690931 0
0.05217391625 0.2121739239 -2.796521902 0
0.04843243584 0.2110270411 -2.781405449 0
0.0446511656 0.2095170021 -2.761502743 0
0.04151351377 0.2110270411 -2.781405449 0
-0.04190476239 0.1161904782 -1.531428576 0
-0.04380952567 0.1161904782 -1.531428576 0
-0.04571428895 0.1161904782 -1.531428576 0
-0.04761904851 0.1161904782 -1.531428576 0
-0.04952381179 0.1161904782 -1.531428576 0
-0.05142857507 0.1161904782 -1.531428576 0
-0.05333333462 0.1161904782 -1.531428576 0
-0.1078651696 0.2193258554 -2.890786648 0
-0.1084153056 0.2133333385 -2.811803341 0
-0.1089361757 0.2076595873 -2.737021446 0
-0.0889756158 0.1428292692 -1.88253665 0
-0.09065375477 0.1417917758 -1.868862033 0
-0.09208633751 0.1404316574 -1.85093534 0
-0.1125663742 0.1295575202 -1.707610726 0
-0.113187775 0.127860263 -1.685240269 0
-0.1141621694 0.1266162246 -1.668843269 0
-0.1147492006 0.1249946654 -1.647470713 0
-0.1142380014 0.1222546995 -1.611357093 0
-0.1137487292 0.1196322814 -1.576792717 0
-0.1136208698 0.1174724251 -1.548325062 0
-0.1142857149 0.1161904782 -1.531428576 0
-0.1161904782 0.1161904782 -1.531428576 0
-0.1180952415 0.1161904782 -1.531428576 0
-0.1200000048 0.1161904782 -1.531428576 0
-0.121904768 0.1161904782 -1.531428576 0
-0.1238095313 0.1161904782 -1.531428576 0
-0.1645714343 0.1454906911 -1.917614937 0
-0.1651105732 0.143882066 -1.896412849 0
inf -inf inf 0
inf -inf inf 0
inf -inf inf 0
inf -inf inf 0
inf -inf inf 0
inf -inf inf 0
-0.2050965279 0.1507335901 -1.986718178 0
-0.2075675726 0.1507335901 -1.986718178 0
-0.2097686529 0.1505398452 -1.984164596 0
-0.2116923183 0.1501538455 -1.979076982 0
-0.214153856 0.1501538455 -1.979076982 9.219562986e-41
-0.2166153938 0.1501538455 -1.979076982 2.765868896e-40
-0.2190769315 0.1501538455 -1.979076982 4.609781493e-40
-0.2215384692 0.1501538455 -1.979076982 5.531737792e-40
-0.2240000069 0.1501538455 -1.979076982 4.609781493e-40
-0.2264615446 0.1501538455 -1.979076982 2.765868896e-40
-0.2292169482 0.150346607 -1.98161757 9.219562986e-41
-0.2319794446 0.1505398452 -1.984164596 0
-0.2341463566 0.150346607 -1.98161757 0
-0.2360051274 0.1499615908 -1.97654295 0
-0.6817391515 0.4243478477 -5.593043804 0
-0.6837410331 0.4212949872 -5.552805901 0
-0.6832740307 0.4167971611 -5.493523121 0
-0.6260870099 0.3637267351 -4.794037342 0
-0.6093413234 0.350658685 -4.621796608 0
-0.7971119285 0.4228158891 -5.572852135 0
-0.814964056 0.4212949872 -5.552805901 0
-0.8218705058 0.4212949872 -5.552805901 9.219562986e-41
-0.8287770152 0.4212949872 -5.552805901 1.843912597e-40
-0.835683465 0.4212949872 -5.552805901 3.687825195e-40
-0.8425899744 0.4212949872 -5.552805901 5.531737792e-40
-0.8494964242 0.4212949872 -5.552805901 5.531737792e-40
-0.8564029336 0.4212949872 -5.552805901 4.609781493e-40
-0.8633093834 0.4212949872 -5.552805901 2.765868896e-40
-0.8702158332 0.4212949872 -5.552805901 9.219562986e-41
-0.8771223426 0.4212949872 -5.552805901 0
-0.8950890303 0.4167971611 -5.493523121 0
-2.040945053 0.9222047329 -12.15496063 0
-1.993282557 0.8940458298 -11.78381729 0
-0.782222271 0.3336752355 -4.397948742 1.843912597e-40
-0.5749152899 0.2205649763 -2.907118797 2.765868896e-40
-0.5640876293 0.2137226313 -2.816934347 2.765868896e-40
-0.4100000262 0.1525000036 -2.00999999 2.765868896e-40
-0.4087741971 0.1511225849 -1.99184525 2.765868896e-40
-0.4117829502 0.1513178349 -1.99441874 2.765868896e-40
-0.4142635763 0.1513178349 -1.99441874 2.765868896e-40
-0.4192248285 0.1513178349 -1.99441874 2.765868896e-40
-0.4285714328 0.149387762 -1.968979716 0
-0.4181022048 0.1424817592 -1.877956271 0
-1.266383052 0.4153191745 -5.474042892 9.219562986e-41
-1.273191571 0.4153191745 -5.474042892 1.843912597e-40
-1.280000091 0.4153191745 -5.474042892 2.765868896e-40
-1.28680861 0.4153191745 -5.474042892 2.765868896e-40
-1.28904593 0.4138516188 -5.454699993 1.843912597e-40
-1.295830488 0.4138516188 -5.454699993 9.219562986e-41
-1.307234049 0.4153191745 -5.474042892 0
3.116883278 0.748052001 -10.02389622 0
0.4380952418 0.1142857149 -1.531428576 1.843912597e-40
0.436190486 0.1142857149 -1.531428576 1.843912597e-40
0.4342857301 0.1142857149 -1.531428576 1.843912597e-40
0.4323809743 0.1142857149 -1.531428576 1.843912597e-40
0.4304762185 0.1142857149 -1.531428576 2.765868896e-40
0.4285714328 0.1142857149 -1.531428576 2.765868896e-40
0.426666677 0.1142857149 -1.531428576 2.765868896e-40
0.4247619212 0.1142857149 -1.531428576 1.843912597e-40
0.5916119814 0.1643366665 -2.202111244 0
31.45846367 8.861538887 -118.7446213 0
33.92000198 9.600000381 -128.6399994 0
31.16307831 8.861538887 -118.7446213 0
36.65454865 10.47272778 -140.334549 0
0.5521752238 0.1681751907 -2.25354743 0
0.5469767451 0.1674418598 -2.243721008 0
0.5473684669 0.1684210598 -2.256842136 0
0.5469603539 0.1691630036 -2.266784191 0
0.5441409945 0.1691630036 -2.266784191 0
0.5421176553 0.1694117785 -2.27011776 0
0.5392941236 0.1694117785 -2.27011776 1.843912597e-40
0.536470592 0.1694117785 -2.27011776 4.609781493e-40
0.5336470604 0.1694117785 -2.27011776 6.45369409e-40
0.5308235288 0.1694117785 -2.27011776 6.45369409e-40
0.5279999971 0.1694117785 -2.27011776 4.609781493e-40
0.5251764655 0.1694117785 -2.27011776 1.843912597e-40
0.523122251 0.1696612686 -2.273461103 0
0.5210619569 0.1699115038 -2.276814222 0
0.5174669027 0.1696612686 -2.273461103 0
0.5161595345 0.170162484 -2.280177355 0
0.5156083107 0.1709198952 -2.290326595 0
0.5127596855 0.1709198952 -2.290326595 0
0.5084024072 0.1704142094 -2.283550501 0
0.5116167665 0.1724551022 -2.310898304 0
0.7757020593 0.330085963 -4.42315197 0
0.9427957535 0.4129032493 -5.532903671 0
0.7578947544 0.3368421197 -4.513684273 0
0.7567059398 0.3388235569 -4.540235519 0
0.742325604 0.3348837197 -4.487442017 0
0.7099159956 0.3226890862 -4.324033737 0
0.6761290431 0.309677422 -4.149677753 0
0.6400000453 0.2953846157 -3.958153963 0
0.6100493073 0.2837438583 -3.802167654 0
0.5809929371 0.2723404467 -3.649361849 0
0.5554442406 0.2624145746 -3.516355515 0
0.5316923261 0.2531868219 -3.392703533 0
0.5095541477 0.2445859909 -3.277452469 0
0.4888706505 0.2365503162 -3.169774294 0
0.4695029855 0.2290258557 -3.068946362 0
0.4504615664 0.2215384692 -2.968615532 0
0.4342429936 0.2153271139 -2.885383368 0
0.4181488454 0.2090744227 -2.801597118 0
0.4029629827 0.203174606 -2.722539902 0
0.388610661 0.1975986362 -2.647821665 0
0.3750250638 0.1923205405 -2.57709527 0
0.3621463478 0.1873170733 -2.510048866 0
0.3499207795 0.182567358 -2.44640255 0
0.3382998705 0.1780525595 -2.385904312 0
0.3272398412 0.1737556607 -2.328325987 0
0.3066474795 0.165755406 -2.221122503 0
0.297464788 0.1622535288 -2.174197197 0
0.2947605848 0.1622535288 -2.174197197 0
0.2924682796 0.1624823809 -2.177263737 0
0.2901695073 0.1627118737 -2.180339098 0
0.2928345501 0.165755406 -2.221122503 0
0.2909091115 0.166233778 -2.227532625 0
0.2877233624 0.1659942418 -2.224322796 0
0.2432795167 0.1431055963 -1.917614937 0
0.185302332 0.1339534968 -1.79497683 2.765868896e-40
0.242562294 0.2049822211 -2.74676156 9.219562986e-41
0.2391459197 0.2049822211 -2.74676156 0
0.2357295454 0.2049822211 -2.74676156 0
0.231900543 0.2046181262 -2.741882801 0
0.2280851156 0.2042553276 -2.737021446 0
0.2258823663 0.2053475976 -2.751657963 0
0.225270763 0.2079422474 -2.786426067 0
0.2210071981 0.2071942538 -2.77640295 0
0.3138964772 0.3138964772 -4.206212521 0
3.264000177 5.760000229 -77.18400574 0
4.873846531 8.861538887 -118.7446213 0
4.388571739 8.228571892 -110.2628632 0
2.834285736 5.485714436 -73.50857544 0
2.880000114 5.760000229 -77.18400574 0
3.093333483 6.400000095 -85.76000214 0
0.05902351066 0.2083182782 -2.791464806 0
0.05575317889 0.2090744227 -2.801597118 0
0.05207956955 0.2083182782 -2.791464806 0
0.04843243584 0.2075675726 -2.781405449 0
0.04473118484 0.2064516246 -2.766451836 0
0.04158844799 0.2079422474 -2.786426067 0
-0.1092110127 0.2113761604 -2.832440376 0
-0.1103052124 0.2068222761 -2.771418333 0
-0.08694340289 0.1449056715 -1.941735864 0
-0.08824845403 0.1431055963 -1.917614937 0
-0.09007407725 0.1422222257 -1.905777812 0
-0.09154034406 0.1408313066 -1.88713944 0
-0.09343066067 0.1401459873 -1.877956271 0
-0.1126910374 0.1275747567 -1.709501743 0
-0.1134354547 0.1260393858 -1.688927889 0
-0.1144095361 0.1248104051 -1.672459483 0
-0.1148717999 0.1230769306 -1.649230838 0
-0.1145968661 0.120628275 -1.616418958 0
-0.1140983626 0.1180327907 -1.581639409 0
-0.1140785515 0.116012089 -1.554561973 0
-0.1142857149 0.1142857149 -1.531428576 0
-0.1161904782 0.1142857149 -1.531428576 0
-0.1180952415 0.1142857149 -1.531428576 0
-0.1200000048 0.1142857149 -1.531428576 0
-0.121904768 0.1142857149 -1.531428576 0
-0.1649813205 0.1434620172 -1.922391057 0
inf -inf inf 0
inf -inf inf 0
inf -inf inf 0
inf -inf inf 0
inf -inf inf 0
-0.2050965279 0.1482625604 -1.986718178 0
-0.2075675726 0.1482625604 -1.986718178 0
-0.2097686529 0.1480719894 -1.984164596 0
-0.2116923183 0.1476923078 -1.979076982 0
-0.214153856 0.1476923078 -1.979076982 9.219562986e-41
-0.2166153938 0.1476923078 -1.979076982 2.765868896e-40
-0.2190769315 0.1476923078 -1.979076982 4.609781493e-40
-0.2215384692 0.1476923078 -1.979076982 5.531737792e-40
-0.2240000069 0.1476923078 -1.979076982 4.609781493e-40
-0.2264615446 0.1476923078 -1.979076982 2.765868896e-40
-0.2292169482 0.1478819102 -1.98161757 9.219562986e-41
-0.2319794446 0.1480719894 -1.984164596 0
-0.2341463566 0.1478819102 -1.98161757 0
-0.2360051274 0.1475032121 -1.97654295 0
-0.676056385 0.4056338072 -5.435492992 0
-0.814964056 0.4143885076 -5.552805901 0
-0.8218705058 0.4143885076 -5.552805901 9.219562986e-41
-0.8258064985 0.4129032493 -5.532903671 1.843912597e-40
-0.835683465 0.4143885076 -5.552805901 3.687825195e-40
-0.8425899744 0.4143885076 -5.552805901 5.531737792e-40
-0.8464516401 0.4129032493 -5.532903671 5.531737792e-40
-0.853333354 0.4129032493 -5.532903671 4.609781493e-40
-0.8633093834 0.4143885076 -5.552805901 2.765868896e-40
-0.8702158332 0.4143885076 -5.552805901 9.219562986e-41
-0.8771223426 0.4143885076 -5.552805901 0
-0.8950890303 0.4099644423 -5.493523121 0
-0.9216000438 0.4189091027 -5.613381863 0
-2.182564259 0.9846154451 -13.1938467 0
-2.144000053 0.9600000381 -12.86400032 0
-2.057142973 0.9142857194 -12.2514286 0
-1.993282557 0.8793893456 -11.78381729 0
-0.7723513246 0.3263456225 -4.373031139 9.219562986e-41
-0.780000031 0.327272743 -4.385454655 1.843912597e-40
-0.7810170054 0.3254237473 -4.360678196 2.765868896e-40
-0.5749152899 0.2169491649 -2.907118797 9.219562986e-41
-0.4094668627 0.1498049498 -2.007386208 1.843912597e-40
-0.4087741971 0.1486451626 -1.99184525 1.843912597e-40
-0.4123156667 0.1490297616 -1.996998787 9.219562986e-41
-0.4142635763 0.1488372087 -1.99441874 1.843912597e-40
-0.4167442024 0.1488372087 -1.99441874 1.843912597e-40
-0.4197671711 0.1490297616 -1.996998787 2.765868896e-40
-0.421161294 0.1486451626 -1.99184525 2.765868896e-40
-0.4236387312 0.1486451626 -1.99184525 2.765868896e-40
-0.4310709834 0.1486451626 -1.99184525 0
-0.4296675324 0.1473145783 -1.974015474 0
-0.427206099 0.1456384361 -1.951555014 0
-0.4177995324 0.1408313066 -1.88713944 0
-0.4175941944 0.1399756968 -1.875674486 0
-1.277722478 0.4099644423 -5.493523121 1.843912597e-40
-1.280000091 0.4085106552 -5.474042892 2.765868896e-40
-1.28680861 0.4085106552 -5.474042892 2.765868896e-40
-1.284507036 0.4056338072 -5.435492992 2.765868896e-40
-1.291267633 0.4056338072 -5.435492992 9.219562986e-41
-9.36000061 2.880000114 -38.59200287 0
3.15789485 0.7452631593 -10.15579033 0
0.436190486 0.1123809591 -1.531428576 2.765868896e-40
0.4342857301 0.1123809591 -1.531428576 2.765868896e-40
0.4323809743 0.1123809591 -1.531428576 2.765868896e-40
0.5960515141 0.1620600969 -2.20841217 0
0.5924571753 0.1618285775 -2.205257177 0
27.13600159 7.552000523 -102.9120026 0
27.00800133 7.552000523 -102.9120026 0
0.5461828709 0.1644122005 -2.240464449 0
0.5473684669 0.1656140387 -2.256842136 0
0.5469603539 0.1663436145 -2.266784191 0
0.5441409945 0.1663436145 -2.266784191 0
0.5421176553 0.1665882468 -2.27011776 0
0.5392941236 0.1665882468 -2.27011776 1.843912597e-40
0.536470592 0.1665882468 -2.27011776 4.609781493e-40
0.5336470604 0.1665882468 -2.27011776 6.45369409e-40
0.5308235288 0.1665882468 -2.27011776 6.45369409e-40
0.5279999971 0.1665882468 -2.27011776 4.609781493e-40
0.5251764655 0.1665882468 -2.27011776 1.843912597e-40
0.523122251 0.1668335795 -2.273461103 0
0.5210619569 0.1670796573 -2.276814222 0
0.5182300806 0.1670796573 -2.276814222 0
0.5161595345 0.1673264503 -2.280177355 0
0.5156083107 0.1680712253 -2.290326595 0
0.5127596855 0.1680712253 -2.290326595 0
0.5084024072 0.1675739735 -2.283550501 0
0.5116167665 0.169580847 -2.310898304 0
0.4690909386 0.1609091014 -2.192727327 0
0.4625742733 0.1869307011 -2.547326803 0
0.4734246731 0.1939726174 -2.643287659 0
0.7578947544 0.3312280774 -4.513684273 0
0.7500874996 0.3302623928 -4.500524998 0
0.7401739359 0.328347832 -4.474434853 0
0.7119101286 0.3182022572 -4.336179733 0
0.6834782958 0.3078261018 -4.194782734 0
0.6483117342 0.2942337692 -4.009558678 0
0.2947605848 0.1595492959 -2.174197197 0
0.2924682796 0.1597743332 -2.177263737 0
0.2901695073 0.1600000113 -2.180339098 0
0.2928345501 0.1629928052 -2.221122503 0
0.290489912 0.1632276773 -2.224322796 0
0.2877233624 0.1632276773 -2.224322796 0
0.3200000226 0.3095082045 -4.21770525 0
0.3138964772 0.3086648583 -4.206212521 0
4.873846531 8.713846207 -118.7446213 0
4.388571739 8.091428757 -110.2628632 0
2.976000071 5.664000034 -77.18400574 0
2.880000114 5.664000034 -77.18400574 0
3.275294304 6.663529873 -90.80471039 0
0.06249548122 0.2048463076 -2.791464806 0
0.05902351066 0.2048463076 -2.791464806 0
0.0556521751 0.2052174062 -2.796521902 0
0.05207956955 0.2048463076 -2.791464806 0
0.04834532738 0.203741014 -2.77640295 0
0.0446511656 0.2026475966 -2.761502743 0
0.04151351377 0.204108119 -2.781405449 0
-0.08716267347 0.1428499371 -1.946633101 0
-0.08891114593 0.1417772323 -1.932015061 0
-0.09052109718 0.1405459046 -1.915235758 0
-0.09255871922 0.1400247216 -1.908133626 0
-0.1058434471 0.1248952672 -1.70196259 0
-0.1126910374 0.1254485101 -1.709501743 0
-0.1136842147 0.124210529 -1.692631602 0
-0.1146579832 0.1229967475 -1.676091313 0
-0.1151177809 0.1212847978 -1.652762413 0
-0.1148373634 0.1188667417 -1.619811177 0
-0.1143326536 0.1163039058 -1.584887147 0
-0.1144242436 0.1144242436 -1.559272766 0
-0.1142857149 0.1123809591 -1.531428576 0
-0.1161904782 0.1123809591 -1.531428576 0
-0.1180952415 0.1123809591 -1.531428576 0
-0.1200000048 0.1123809591 -1.531428576 0
inf -inf inf 0
inf -inf inf 0
inf -inf inf 0
inf -inf inf 0
inf -inf inf 0
-0.2075675726 0.1457915157 -1.986718178 0
-0.2097686529 0.1456041187 -1.984164596 0
-0.2116923183 0.1452307701 -1.979076982 0
-0.214153856 0.1452307701 -1.979076982 0
-0.2166153938 0.1452307701 -1.979076982 1.843912597e-40
-0.2190769315 0.1452307701 -1.979076982 4.609781493e-40
-0.2215384692 0.1452307701 -1.979076982 5.531737792e-40
-0.2240000069 0.1452307701 -1.979076982 4.609781493e-40
-0.2264615446 0.1452307701 -1.979076982 2.765868896e-40
-0.2292169482 0.1454172134 -1.98161757 9.219562986e-41
-0.2319794446 0.1456041187 -1.984164596 0
-0.2341463566 0.1454172134 -1.98161757 0
-0.2363076955 0.1452307701 -1.979076982 0
-0.6666666865 0.3933333457 -5.360000134 0
-0.6507382989 0.3801342547 -5.180134296 0
-0.8189247847 0.4060215354 -5.532903671 0
-0.8258064985 0.4060215354 -5.532903671 1.843912597e-40
-0.8326882124 0.4060215354 -5.532903671 3.687825195e-40
-0.8395699263 0.4060215354 -5.532903671 4.609781493e-40
-0.8464516401 0.4060215354 -5.532903671 5.531737792e-40
-0.853333354 0.4060215354 -5.532903671 4.609781493e-40
-0.8602150679 0.4060215354 -5.532903671 2.765868896e-40
-0.8702158332 0.407482028 -5.552805901 9.219562986e-41
-0.8739785552 0.4060215354 -5.532903671 0
-0.8950890303 0.4031316936 -5.493523121 0
-2.220521927 0.9850435257 -13.42330456 0
-2.144000053 0.9440000653 -12.86400032 0
-2.057142973 0.8990476727 -12.2514286 0
-2.008615494 0.8713846207 -11.87446213 0
-0.782222271 0.3227350414 -4.397948742 9.219562986e-41
-0.7810170054 0.3200000226 -4.360678196 2.765868896e-40
-0.5636363626 0.2145454586 -2.923636436 2.765868896e-40
-0.5738345981 0.2129323334 -2.901654243 0
-0.5720670819 0.2109497339 -2.874636889 0
-0.5651188493 0.2070932388 -2.822084188 9.219562986e-41
-0.4094668627 0.1473082006 -2.007386208 9.219562986e-41
-0.4093023539 0.1463565975 -1.99441874 9.219562986e-41
-0.4123156667 0.1465459317 -1.996998787 9.219562986e-41
-0.4147995114 0.1465459317 -1.996998787 9.219562986e-41
-0.4197671711 0.1465459317 -1.996998787 1.843912597e-40
-0.421161294 0.1461677402 -1.99184525 2.765868896e-40
-0.4236387312 0.1461677402 -1.99184525 2.765868896e-40
-0.4297024608 0.1465459317 -1.996998787 1.843912597e-40
-0.4310709834 0.1461677402 -1.99184525 9.219562986e-41
-0.4302176833 0.1450448185 -1.97654295 0
-0.427206099 0.1432111263 -1.951555014 0
-0.4183109105 0.1386536211 -1.889449239 0
-0.4175941944 0.137642771 -1.875674486 0
-0.4324112833 0.1386536211 -1.889449239 0
-1.280000091 0.3974736929 -5.416421413 2.765868896e-40
-9.312000275 2.832000017 -38.59200287 0
-8.91428566 2.697143078 -36.75428772 0
-8.552727699 2.574545622 -35.08363724 0
3.221476555 0.7473825812 -10.36026859 0
0.5960515141 0.1593133062 -2.20841217 0
0.5933047533 0.1593133062 -2.20841217 0
0.5822285414 0.1570663005 -2.177263737 0
0.5537391305 0.1613913178 -2.237217426 0
0.5453913212 0.1613913178 -2.237217426 0
0.5465693474 0.162569344 -2.25354743 0
0.5461583734 0.1632844657 -2.263460398 0
0.5433431268 0.1632844657 -2.263460398 0
0.5421176553 0.1637647152 -2.27011776 0
0.5392941236 0.1637647152 -2.27011776 1.843912597e-40
0.536470592 0.1637647152 -2.27011776 4.609781493e-40
0.5336470604 0.1637647152 -2.27011776 6.45369409e-40
0.5308235288 0.1637647152 -2.27011776 6.45369409e-40
0.5279999971 0.1637647152 -2.27011776 4.609781493e-40
0.5251764655 0.1637647152 -2.27011776 9.219562986e-41
0.523122251 0.1640058905 -2.273461103 0
0.5210619569 0.1642477959 -2.276814222 0
0.5182300806 0.1642477959 -2.276814222 0
0.5161595345 0.1644904017 -2.280177355 0
0.5156083107 0.1652225554 -2.290326595 0
0.5135215521 0.1654680669 -2.293729544 0
0.5091555715 0.1649777889 -2.286933422 0
0.5116167665 0.1667065918 -2.310898304 0
0.5095052719 0.166956529 -2.314363003 0
0.4947584271 0.1630453914 -2.260146618 0
0.4696995914 0.1593133062 -2.20841217 0
0.4656205475 0.1588587761 -2.202111244 0
0.4615647495 0.1584068388 -2.195846558 0
0.4588335752 0.1584068388 -2.195846558 0
0.4516017437 0.1606926471 -2.227532625 0
0.4641059637 0.1843708754 -2.555761576 0
0.4710051417 0.1897103935 -2.629778624 0
0.4661460221 0.1890662163 -2.620848894 0
0.4691854715 0.1929982752 -2.675355434 0
0.4691099524 0.1943455637 -2.694031477 0
0.4617301226 0.1926643699 -2.670726776 0
0.7556851506 0.3246647418 -4.500524998 0
0.745739162 0.3227826357 -4.474434853 0
0.735907793 0.3209221959 -4.448645592 0
0.7099159956 0.3119327724 -4.324033737 0
0.6890959144 0.305095911 -4.229260445 0
0.291731447 0.1311660856 -1.818233252 0
0.284774065 0.1290382445 -1.788737059 0
0.2947605848 0.1568450779 -2.174197197 0
0.2924682796 0.1570663005 -2.177263737 0
0.290579915 0.1575106084 -2.183423042 0
0.2928345501 0.1602302194 -2.221122503 0
0.290489912 0.160461098 -2.224322796 0
0.2877233624 0.160461098 -2.224322796 0
0.3200000226 0.3042623103 -4.21770525 0
0.3138964772 0.3034332395 -4.206212521 0
0.2438799143 0.2571824491 -3.565080881 0
4.388571739 7.954286098 -110.2628632 0
2.976000071 5.568000317 -77.18400574 0
2.880000114 5.568000317 -77.18400574 0
3.480000019 6.960000038 -96.48000336 0
0.06596745551 0.2013743222 -2.791464806 0
0.06238267571 0.2010108382 -2.786426067 0
0.05891697109 0.2010108382 -2.786426067 0
0.05555154011 0.2013743222 -2.791464806 0
0.05198556185 0.2010108382 -2.786426067 0
0.04825852811 0.1999281943 -2.771418333 0
0.04457142949 0.1988571435 -2.756571531 0
0.04151351377 0.2006486505 -2.781405449 0
-0.05714285746 0.1104761958 -1.531428576 0
-0.05904762074 0.1104761958 -1.531428576 0
-0.08727273345 0.1406060606 -1.949090958 0
-0.08935849369 0.140075475 -1.941735864 0
-0.09097257257 0.1388528794 -1.924788117 0
-0.09313432872 0.1385074705 -1.920000076 0
-0.09564135224 0.1386799514 -1.922391057 0
-0.09803238511 0.1386799514 -1.922391057 0
-0.1006741598 0.1390262246 -1.927191138 0
-0.1034586504 0.1395488828 -1.934436202 0
-0.1038410664 0.1229139119 -1.70384109 0
-0.1058434471 0.1227783933 -1.70196259 0
-0.1080794707 0.1229139119 -1.70384109 0
-0.1105647907 0.1233222634 -1.709501743 0
-0.1126910374 0.1233222634 -1.709501743 0
-0.1138090044 0.1222392991 -1.694489598 0
-0.1146579832 0.1209120601 -1.676091313 0
-0.1152411625 0.1193569154 -1.654533863 0
-0.1150788665 0.117097795 -1.623217702 0
-0.1144501567 0.1144501567 -1.586516023 0
-0.1145399436 0.1125985906 -1.560849428 0
-0.1142857149 0.1104761958 -1.531428576 0
-0.1161904782 0.1104761958 -1.531428576 0
-0.1180952415 0.1104761958 -1.531428576 0
inf -inf inf 0
inf -inf inf 0
inf -inf inf 0
inf -inf inf 0
inf -inf inf 0
-0.2075675726 0.143320471 -1.986718178 0
-0.2097686529 0.143136248 -1.984164596 0
-0.2116923183 0.1427692324 -1.979076982 0
-0.214153856 0.1427692324 -1.979076982 0
-0.2166153938 0.1427692324 -1.979076982 1.843912597e-40
-0.2190769315 0.1427692324 -1.979076982 4.609781493e-40
-0.2215384692 0.1427692324 -1.979076982 5.531737792e-40
-0.2240000069 0.1427692324 -1.979076982 4.609781493e-40
-0.2264615446 0.1427692324 -1.979076982 2.765868896e-40
-0.2292169482 0.1429525018 -1.98161757 9.219562986e-41
-0.2319794446 0.143136248 -1.984164596 0
-0.2341463566 0.1429525018 -1.98161757 0
-0.2363076955 0.1427692324 -1.979076982 0
-0.238463521 0.1425864398 -1.97654295 0
-0.6643598676 0.3853287399 -5.341453552 0
-0.6464000344 0.3712000251 -5.145600319 0
-0.5974622369 0.3364350498 -4.663685799 0
-0.578782618 0.3227826357 -4.474434853 0
-0.5033009648 0.2702912688 -3.74679637 0
-0.4912676215 0.2614084482 -3.623661995 0
-0.4800000191 0.2530909181 -3.508363724 0
-0.8189247847 0.3991397917 -5.532903671 0
-0.8228572011 0.397714287 -5.513143063 1.843912597e-40
-0.8297142982 0.397714287 -5.513143063 3.687825195e-40
-0.8395699263 0.3991397917 -5.532903671 4.609781493e-40
-2.560000181 1.124848485 -15.59272766 0
-2.259823084 0.9854867458 -13.66088581 0
-2.144000053 0.9280000329 -12.86400032 0
-2.057142973 0.8838095665 -12.2514286 0
-2.008615494 0.8566154242 -11.87446213 0
-1.295534015 0.5405825377 -7.493592739 0
-0.5615094304 0.2101132125 -2.912603855 2.765868896e-40
-0.572758019 0.2089305967 -2.896210194 0
-0.5731343627 0.2077611983 -2.880000114 0
-0.5661538839 0.2039560527 -2.827252865 0
-0.40893507 0.1446233839 -2.004779339 0
-0.4098318517 0.1440621018 -1.996998787 0
-0.4217054546 0.1438759714 -1.99441874 1.843912597e-40
-0.4236387312 0.1436903328 -1.99184525 2.765868896e-40
-0.426666677 0.1438759714 -1.99441874 2.765868896e-40
-0.4308171272 0.1444358081 -2.002179146 1.843912597e-40
-0.4316279292 0.1438759714 -1.99441874 9.219562986e-41
-0.4307692349 0.1427692324 -1.979076982 0
-0.4313553274 0.1359706968 -1.884835243 0
-9.084877968 2.716097593 -37.65073395 0
-8.509091377 2.5309093 -35.08363724 0
-8.006809235 2.369361877 -32.84425735 0
3.200000048 0.7296000123 -10.29120064 0
1.013106465 0.2328510731 -3.284425735 0
1.006878972 0.2323566973 -3.277452469 0
1.004936218 0.2328510731 -3.284425735 0
0.9987261295 0.2323566973 -3.277452469 0
0.594350934 0.1561198384 -2.202111244 0
0.5924571753 0.156342864 -2.205257177 0
0.5838755369 0.1547949165 -2.183423042 0
0.5762693286 0.1534922868 -2.165049076 0
0.5719720721 0.1530629396 -2.158993006 0
0.5529378057 0.1583791673 -2.23397994 0
0.5497674346 0.1590697765 -2.243721008 0
0.5446020365 0.1583791673 -2.23397994 0
0.5457726121 0.1595335305 -2.250262499 0
0.5461583734 0.1604692191 -2.263460398 0
0.5433431268 0.1604692191 -2.263460398 0
0.5421176553 0.1609411836 -2.27011776 0
0.5392941236 0.1609411836 -2.27011776 1.843912597e-40
0.536470592 0.1609411836 -2.27011776 4.609781493e-40
0.5336470604 0.1609411836 -2.27011776 6.45369409e-40
0.5308235288 0.1609411836 -2.27011776 6.45369409e-40
0.5279999971 0.1609411836 -2.27011776 3.687825195e-40
0.5251764655 0.1609411836 -2.27011776 9.219562986e-41
0.523122251 0.1611782163 -2.273461103 0
0.5210619569 0.1614159346 -2.276814222 0
0.5182300806 0.1614159346 -2.276814222 0
0.5161595345 0.161654368 -2.280177355 0
0.5156083107 0.1623739004 -2.290326595 0
0.5142857432 0.1628571451 -2.297142982 0
0.5099110007 0.1623739004 -2.290326595 0
0.5116167665 0.1638323367 -2.310898304 0
0.4954838753 0.1604692191 -2.263460398 0
0.4862518311 0.1583791673 -2.23397994 0
0.4855814278 0.1590697765 -2.243721008 0
0.4827907085 0.1590697765 -2.243721008 0
0.4800000191 0.1590697765 -2.243721008 0
0.4758261144 0.1586087048 -2.237217426 0
0.4723589122 0.1583791673 -2.23397994 0
0.4695803225 0.1583791673 -2.23397994 0
0.468156755 0.1588388979 -2.240464449 0
0.4687719345 0.1600000113 -2.256842136 0
0.4666471481 0.1602342725 -2.260146618 0
0.4638360441 0.1602342725 -2.260146618 0
0.4610249102 0.1602342725 -2.260146618 0
0.452254355 0.1581503004 -2.230751514 0
0.4393220544 0.1545762718 -2.180339098 0
0.4641059637 0.1811920553 -2.555761576 0
0.4686101973 0.1854915321 -2.616406918 0
0.4622222483 0.1842424273 -2.598788023 0
0.4574496746 0.1836241633 -2.590067148 0
0.460408181 0.1861224622 -2.625306129 0
0.4610634744 0.1877187043 -2.647821665 0
0.4577701688 0.1877187043 -2.647821665 0
0.4521501958 0.1867576838 -2.634266376 0
0.751304388 0.3172174096 -4.474434853 0
0.7393103838 0.3144827783 -4.435862064 0
0.7296000123 0.3126857281 -4.410514355 0
0.7099159956 0.3065546453 -4.324033737 0
0.6909890175 0.3006593585 -4.240879059 0
0.2910458446 0.1286016554 -1.813960075 0
0.2844444513 0.1266666651 -1.786666751 0
0.2943460047 0.1539240628 -2.17113924 0
0.2928813696 0.1545762718 -2.180339098 0
0.2914042771 0.1552340537 -2.189617157 0
0.2928345501 0.1574676335 -2.221122503 0
0.290489912 0.1576945335 -2.224322796 0
0.2877233624 0.1576945335 -2.224322796 0
4.726153851 8.4184618 -118.7446213 0
2.976000071 5.472000122 -77.18400574 0
2.880000114 5.472000122 -77.18400574 0
3.480000019 6.840000153 -96.48000336 0
0.06943942606 0.1979023516 -2.791464806 9.219562986e-41
0.06584838033 0.197545141 -2.786426067 0
0.06227027252 0.1971891969 -2.781405449 0
0.05881081149 0.1971891969 -2.781405449 0
0.05545126647 0.197545141 -2.786426067 0
0.05198556185 0.197545141 -2.786426067 0
0.0481720455 0.1961290389 -2.766451836 0
0.04449198022 0.1950802207 -2.751657963 0
0.04151351377 0.1971891969 -2.781405449 0
-0.05523809791 0.1085714325 -1.531428576 0
-0.05714285746 0.1085714325 -1.531428576 0
-0.05904762074 0.1085714325 -1.531428576 0
-0.06095238402 0.1085714325 -1.531428576 0
-0.08947103471 0.1378337592 -1.944181442 0
-0.09154329449 0.1373149306 -1.936863303 0
-0.09395232797 0.1373149306 -1.936863303 0
-0.09636136144 0.1373149306 -1.936863303 0
-0.09877039492 0.1373149306 -1.936863303 0
-0.1014339626 0.1376603842 -1.941735864 1.843912597e-40
-0.1041109785 0.1380075663 -1.946633101 2.765868896e-40
-0.1038410664 0.120794706 -1.70384109 9.219562986e-41
-0.1058434471 0.1206615269 -1.70196259 0
-0.1080794707 0.120794706 -1.70384109 0
-0.1105647907 0.1211960167 -1.709501743 0
-0.1128159687 0.1213303804 -1.711396933 0
-0.1139340699 0.1202637404 -1.696351767 0
-0.1147826165 0.1189565286 -1.67791307 0
-0.1156129092 0.1176774204 -1.659870982 0
-0.1159322113 0.1159322113 -1.635254264 0
-0.1146858931 0.1127085537 -1.589783788 0
-0.1147720441 0.1108814627 -1.56401217 0
-0.1142857149 0.1085714325 -1.531428576 0
-0.1161904782 0.1085714325 -1.531428576 0
-0.1180952415 0.1085714325 -1.531428576 0
-0.4856917262 0.432569176 -6.101502419 0
-0.4709434211 0.4129811525 -5.82520771 0
-0.459130466 0.3965217471 -5.593043804 0
inf -inf inf 9.219562986e-41
inf -inf inf 9.219562986e-41
inf -inf inf 9.219562986e-41
inf -inf inf 9.219562986e-41
inf -inf inf 1.843912597e-40
inf -inf inf 9.219562986e-41
-0.2050965279 0.1408494264 -1.986718178 1.843912597e-40
-0.2075675726 0.1408494264 -1.986718178 1.843912597e-40
-0.2097686529 0.1406683922 -1.984164596 9.219562986e-41
-0.2116923183 0.1403076947 -1.979076982 9.219562986e-41
-0.214153856 0.1403076947 -1.979076982 1.843912597e-40
-0.2166153938 0.1403076947 -1.979076982 3.687825195e-40
-0.2190769315 0.1403076947 -1.979076982 5.531737792e-40
-0.2215384692 0.1403076947 -1.979076982 6.45369409e-40
-0.2240000069 0.1403076947 -1.979076982 5.531737792e-40
-0.2264615446 0.1403076947 -1.979076982 3.687825195e-40
-0.2292169482 0.140487805 -1.98161757 1.843912597e-40
-0.2319794446 0.1406683922 -1.984164596 9.219562986e-41
-0.2341463566 0.140487805 -1.98161757 9.219562986e-41
-0.2360051274 0.1401280463 -1.97654295 9.219562986e-41
-0.238463521 0.1401280463 -1.97654295 9.219562986e-41
-0.2406138182 0.1399488598 -1.974015474 9.219562986e-41
-2.586122513 1.116734743 -15.75183773 0
-2.300540686 0.9859459996 -13.90702724 0
-2.144000053 0.9120000601 -12.86400032 0
-2.040945053 0.8617323041 -12.15496063 0
-2.008615494 0.841846168 -11.87446213 0
-1.308235288 0.536470592 -7.56705904 0
-1.216289639 0.495203644 -6.984977722 0
-0.5593985319 0.2057143003 -2.901654243 3.687825195e-40
-0.56195122 0.2053283453 -2.896210194 3.687825195e-40
-0.5716854334 0.2049438208 -2.890786648 0
-0.5682353377 0.2011764795 -2.8376472 0
-0.4222509861 0.141578272 -1.996998787 9.219562986e-41
-0.4241860509 0.1413953602 -1.99441874 2.765868896e-40
-0.4272186458 0.141578272 -1.996998787 2.765868896e-40
-0.4319376051 0.1423147023 -2.007386208 2.765868896e-40
-0.4316279292 0.1413953602 -1.99441874 1.843912597e-40
-0.431322217 0.140487805 -1.98161757 9.219562986e-41
-0.4308292866 0.1334634125 -1.88253665 0
-9.50153923 2.806154013 -39.58153915 0
-8.868572235 2.605714321 -36.75428772 0
-7.965957642 2.328510761 -32.84425735 0
-7.378823757 2.145882368 -30.26823616 0
3.15789485 0.7073684335 -10.15579033 0
1.010955453 0.2282802612 -3.277452469 0
1.009021282 0.2287659645 -3.284425735 0
1.000851154 0.2287659645 -3.284425735 0
0.5945454836 0.1527272761 -2.192727327 0
0.5926600695 0.152944535 -2.195846558 0
0.5916119814 0.1533808857 -2.202111244 0
0.5838755369 0.1520792097 -2.183423042 0
0.5762693286 0.1507994384 -2.165049076 0
0.5521387458 0.155375734 -2.230751514 0
0.5481739044 0.1558260918 -2.237217426 0
0.5446020365 0.1556005776 -2.23397994 0
0.5449782014 0.1565065533 -2.246987104 0
0.5453587174 0.1574231386 -2.260146618 0
0.5433431268 0.1576539576 -2.263460398 0
0.5421176553 0.1581176519 -2.27011776 0
0.5392941236 0.1581176519 -2.27011776 1.843912597e-40
0.536470592 0.1581176519 -2.27011776 4.609781493e-40
0.5336470604 0.1581176519 -2.27011776 6.45369409e-40
0.5308235288 0.1581176519 -2.27011776 6.45369409e-40
0.5279999971 0.1581176519 -2.27011776 3.687825195e-40
0.5251764655 0.1581176519 -2.27011776 9.219562986e-41
0.523122251 0.1583505273 -2.273461103 0
0.5210619569 0.1585840732 -2.276814222 0
0.5182300806 0.1585840732 -2.276814222 0
0.5161595345 0.1588183194 -2.280177355 0
0.5156083107 0.1595252305 -2.290326595 0
0.5142857432 0.1600000113 -2.297142982 0
0.5099110007 0.1595252305 -2.290326595 0
0.5108520389 0.1607175022 -2.307444096 0
0.4926686287 0.1576539576 -2.263460398 0
0.4905727208 0.157885462 -2.266784191 0
0.488470614 0.1581176519 -2.27011776 0
0.4856470823 0.1581176519 -2.27011776 0
0.4821145535 0.157885462 -2.266784191 0
0.4792951643 0.157885462 -2.266784191 0
0.4771764874 0.1581176519 -2.27011776 0
0.4743529558 0.1581176519 -2.27011776 0
0.4715294242 0.1581176519 -2.27011776 0
0.469396174 0.1583505273 -2.273461103 0
0.4665684998 0.1583505273 -2.273461103 0
0.4630588293 0.1581176519 -2.27011776 0
0.4529088438 0.1556005776 -2.23397994 0
0.4405665994 0.1522946209 -2.18651557 0
0.4641059637 0.1780132502 -2.555761576 0
0.4670270383 0.181621626 -2.607567549 0
0.4606711566 0.1804026961 -2.590067148 0
0.4551586211 0.1794991791 -2.57709527 0
0.4534673393 0.1801005155 -2.585728645 0
0.4562051594 0.1837948859 -2.638769388 0
0.4498472214 0.1825466901 -2.620848894 0
0.7469741106 0.3098559082 -4.448645592 0
0.732991457 0.3063248098 -4.397948742 0
0.7296000123 0.3072000146 -4.410514355 0
0.7099159956 0.3011764884 -4.324033737 0
0.2913882434 0.1264941245 -1.81609416 0
0.2851044238 0.1247331798 -1.790812135 0
0.2761495113 0.1217667088 -1.748221993 0
0.2928813696 0.1518644094 -2.180339098 0
0.2922332883 0.152944535 -2.195846558 0
0.2932564914 0.1549279541 -2.224322796 0
0.2909091115 0.1551515162 -2.227532625 0
0.2877233624 0.1549279541 -2.224322796 0
0.2870246768 0.1560522616 -2.240464449 0
2.976000071 5.376000404 -77.18400574 0
3.031579018 5.658947468 -81.24632263 0
3.480000019 6.720000267 -96.48000336 0
0.07624548674 0.1940794289 -2.786426067 4.609781493e-40
0.07277978957 0.1940794289 -2.786426067 2.765868896e-40
0.06931408495 0.1940794289 -2.786426067 9.219562986e-41
0.06572972983 0.1937297434 -2.781405449 0
0.0621582754 0.1933813095 -2.77640295 0
0.05870503932 0.1933813095 -2.77640295 0
0.05545126647 0.1940794289 -2.786426067 0
0.05189189315 0.1937297434 -2.781405449 0
0.04808586836 0.1923434734 -2.761502743 0
0.04441281408 0.1913167387 -2.74676156 0
0.04143885151 0.1933813095 -2.77640295 0
-0.05333333462 0.1066666692 -1.531428576 0
-0.05523809791 0.1066666692 -1.531428576 0
-0.05714285746 0.1066666692 -1.531428576 0
-0.05904762074 0.1066666692 -1.531428576 0
-0.06095238402 0.1066666692 -1.531428576 0
-0.08969697356 0.1357575804 -1.949090958 0
-0.09188917279 0.1354156286 -1.944181442 0
-0.0944262296 0.135586381 -1.946633101 0
-0.09672544152 0.1354156286 -1.944181442 0
-0.09926860034 0.135586381 -1.946633101 9.219562986e-41
-0.104374215 0.135929212 -1.951555014 9.219562986e-40
-0.1038410664 0.1186755002 -1.70384109 3.687825195e-40
-0.1058434471 0.1185446605 -1.70196259 1.843912597e-40
-0.1080794707 0.1186755002 -1.70384109 9.219562986e-41
-0.1106873676 0.1192017794 -1.711396933 0
-0.1129411831 0.1193340793 -1.713296413 0
-0.114059411 0.1182838306 -1.698217869 0
-0.1149075106 0.1169967428 -1.679738879 0
-0.1159870625 0.1159870625 -1.665242791 0
-0.1167982966 0.1147492006 -1.647470713 0
-0.1148884445 0.1090466604 -1.565598488 0
-0.1142857149 0.1066666692 -1.531428576 0
-0.1161904782 0.1066666692 -1.531428576 0
-0.4818823636 0.4216470718 -6.053647518 0
-0.4709434211 0.4057358503 -5.82520771 0
-0.4574729502 0.3881588578 -5.572852135 0
inf -inf inf 4.609781493e-40
inf -inf inf 4.609781493e-40
inf -inf inf 4.609781493e-40
inf -inf inf 4.609781493e-40
inf -inf inf 4.609781493e-40
-0.2050965279 0.1383783817 -1.986718178 4.609781493e-40
-0.2075675726 0.1383783817 -1.986718178 4.609781493e-40
-0.2097686529 0.1382005215 -1.984164596 4.609781493e-40
-0.2116923183 0.137846157 -1.979076982 4.609781493e-40
-0.214153856 0.137846157 -1.979076982 4.609781493e-40
-0.2166153938 0.137846157 -1.979076982 5.531737792e-40
-0.2190769315 0.137846157 -1.979076982 7.375650389e-40
-0.2215384692 0.137846157 -1.979076982 7.375650389e-40
-0.2240000069 0.137846157 -1.979076982 7.375650389e-40
-0.2264615446 0.137846157 -1.979076982 5.531737792e-40
-0.2292169482 0.1380231082 -1.98161757 3.687825195e-40
-0.2316816449 0.1380231082 -1.98161757 3.687825195e-40
-0.2341463566 0.1380231082 -1.98161757 3.687825195e-40
-0.2360051274 0.1376696527 -1.97654295 3.687825195e-40
-0.2381585836 0.1374936104 -1.974015474 3.687825195e-40
-0.2406138182 0.1374936104 -1.974015474 3.687825195e-40
-3.030361652 1.29542172 -18.59855461 0
-2.667789459 1.131789565 -16.24926376 0
-2.342752457 0.9864220619 -14.16220284 0
-2.144000053 0.8960000277 -12.86400032 0
-2.040945053 0.846614182 -12.15496063 0
-2.024186134 0.8334884048 -11.96651173 0
-1.97774446 0.8084210753 -11.60661697 0
-1.221818209 0.4887273014 -7.016727448 0
-1.147118688 0.4555932283 -6.541017056 0
-1.090560079 0.4300800264 -6.174720287 0
-0.5583490133 0.2017260939 -2.896210194 5.531737792e-40
-0.5608989 0.2013483196 -2.890786648 5.531737792e-40
-0.5712994337 0.2024858892 -2.907118797 1.843912597e-40
-0.5716854334 0.2013483196 -2.890786648 9.219562986e-41
-0.5703321099 0.1983763874 -2.848118305 9.219562986e-41
-0.5645009279 0.1951361299 -2.801597118 9.219562986e-41
-0.4330638945 0.1401825398 -2.012620687 3.687825195e-40
-0.4321863055 0.1390944421 -1.996998787 2.765868896e-40
-0.431322217 0.1380231082 -1.98161757 1.843912597e-40
-0.4303045273 0.1309622526 -1.880243659 9.219562986e-41
-0.4315917492 0.1306439936 -1.875674486 9.219562986e-41
-8.465455055 2.443636417 -35.08363724 0
-7.488000393 2.150400162 -30.87360191 0
-6.968889236 1.991111159 -28.58666801 0
3.178807974 0.6993377805 -10.2230463 0
1.00881362 0.2237288207 -3.270508528 0
0.5989744067 0.1504273564 -2.198974371 0
0.5953912139 0.1502133757 -2.195846558 0
0.5909787416 0.1497872472 -2.189617157 0
0.5890909433 0.150000006 -2.192727327 0
0.5814085007 0.148732394 -2.174197197 0
0.8414815068 0.2172839642 -3.176296473 0
0.8124551177 0.210778445 -3.081197739 0
0.5521387458 0.1526011676 -2.230751514 0
0.5517562032 0.1532656103 -2.240464449 0
0.5473806262 0.1528220028 -2.23397994 0
0.5438150764 0.1526011676 -2.230751514 0
0.5441860557 0.1534883827 -2.243721008 0
0.5453587174 0.1546120048 -2.260146618 0
0.5425475836 0.1546120048 -2.260146618 0
0.5413216352 0.1550660878 -2.266784191 0
0.5392941236 0.1552941203 -2.27011776 1.843912597e-40
0.536470592 0.1552941203 -2.27011776 4.609781493e-40
0.5336470604 0.1552941203 -2.27011776 6.45369409e-40
0.5308235288 0.1552941203 -2.27011776 6.45369409e-40
0.5279999971 0.1552941203 -2.27011776 4.609781493e-40
0.5251764655 0.1552941203 -2.27011776 1.843912597e-40
0.523122251 0.1555228382 -2.273461103 0
0.5210619569 0.1557522118 -2.276814222 0
